# 3D point list with one line of data per point:
# POINT3D_ID, X, Y, Z, R, G, B, ERROR, TRACK[] (as IMAGE_ID POINT2D_IDX ...)
708 -0.494979 1.350238 0.275639 200 200 200 1.000000 1 7 2 7 3 7 4 7 5 7 6 7 7 7 8 7 9 7 10 7 11 7 12 7 13 7 14 7 15 7
709 -0.226045 1.013948 -0.445726 200 200 200 1.000000 1 8 2 8 3 8 4 8 5 8 6 8 7 8 8 8 9 8 10 8 11 8 12 8 13 8 14 8 15 8
710 -0.118416 1.295938 -0.207704 200 200 200 1.000000 1 9 2 9 3 9 4 9 5 9 6 9 7 9 8 9 9 9 10 9 11 9 12 9 13 9 14 9 15 9
711 0.246851 1.307220 0.385929 200 200 200 1.000000 1 10 2 10 3 10 4 10 5 10 6 10 7 10 8 10 9 10 10 10 11 10 12 10 13 10 14 10 15 10
712 -0.009398 1.209576 0.144512 200 200 200 1.000000 1 11 2 11 3 11 4 11 5 11 6 11 7 11 8 11 9 11 10 11 11 11 12 11 13 11 14 11 15 11
713 -0.293529 1.116847 0.220748 200 200 200 1.000000 1 12 2 12 3 12 4 12 5 12 6 12 7 12 8 12 9 12 10 12 11 12 12 12 13 12 14 12 15 12
714 0.031861 1.107935 -0.224948 200 200 200 1.000000 1 13 2 13 3 13 4 13 5 13 6 13 7 13 8 13 9 13 10 13 11 13 12 13 13 13 14 13 15 13
715 -0.429854 1.063085 -0.216205 200 200 200 1.000000 1 14 2 14 3 14 4 14 5 14 6 14 7 14 8 14 9 14 10 14 11 14 12 14 13 14 14 14 15 14
716 -0.385013 1.442242 0.167423 200 200 200 1.000000 1 15 2 15 3 15 4 15 5 15 6 15 7 15 8 15 9 15 10 15 11 15 12 15 13 15 14 15 15 15
717 0.241946 1.377769 0.100574 200 200 200 1.000000 1 16 2 16 3 16 4 16 5 16 6 16 7 16 8 16 9 16 10 16 11 16 12 16 13 16 14 16 15 16
718 0.984801 1.488776 -0.124366 200 200 200 1.000000 1 17 2 17 3 17 4 17 5 17 6 17 7 17 8 17 9 17 10 17 11 17 12 17 13 17 14 17 15 17
719 0.227262 0.868667 0.280390 200 200 200 1.000000 1 18 2 18 3 18 4 18 5 18 6 18 7 18 8 18 9 18 10 18 11 18 12 18 13 18 14 18 15 18
720 -0.224856 1.367326 -0.703621 200 200 200 1.000000 1 19 2 19 3 19 4 19 5 19 6 19 7 19 8 19 9 19 10 19 11 19 12 19 13 19 14 19 15 19
721 0.364828 1.415550 0.611243 200 200 200 1.000000 1 20 2 20 3 20 4 20 5 20 6 20 7 20 8 20 9 20 10 20 11 20 12 20 13 20 14 20 15 20
722 -0.003826 0.888198 0.556226 200 200 200 1.000000 1 21 2 21 3 21 4 21 5 21 6 21 7 21 8 21 9 21 10 21 11 21 12 21 13 21 14 21 15 21
723 0.063257 0.819179 0.400762 200 200 200 1.000000 1 22 2 22 3 22 4 22 5 22 6 22 7 22 8 22 9 22 10 22 11 22 12 22 13 22 14 22 15 22
724 -0.104758 1.310753 0.157194 200 200 200 1.000000 1 23 2 23 3 23 4 23 5 23 6 23 7 23 8 23 9 23 10 23 11 23 12 23 13 23 14 23 15 23
725 -0.286036 1.182862 0.304576 200 200 200 1.000000 1 24 2 24 3 24 4 24 5 24 6 24 7 24 8 24 9 24 10 24 11 24 12 24 13 24 14 24 15 24
726 -0.607072 1.353406 0.535640 200 200 200 1.000000 1 25 2 25 3 25 4 25 5 25 6 25 7 25 8 25 9 25 10 25 11 25 12 25 13 25 14 25 15 25
727 -0.124962 0.934148 -0.456898 200 200 200 1.000000 1 26 2 26 3 26 4 26 5 26 6 26 7 26 8 26 9 26 10 26 11 26 12 26 13 26 14 26 15 26
728 -0.056104 1.396714 -0.490140 200 200 200 1.000000 1 27 2 27 3 27 4 27 5 27 6 27 7 27 8 27 9 27 10 27 11 27 12 27 13 27 14 27 15 27
729 -0.076345 0.962282 -0.250596 200 200 200 1.000000 1 28 2 28 3 28 4 28 5 28 6 28 7 28 8 28 9 28 10 28 11 28 12 28 13 28 14 28 15 28
730 -0.177268 0.893801 0.314043 200 200 200 1.000000 1 29 2 29 3 29 4 29 5 29 6 29 7 29 8 29 9 29 10 29 11 29 12 29 13 29 14 29 15 29
731 0.001380 0.881854 0.481096 200 200 200 1.000000 1 30 2 30 3 30 4 30 5 30 6 30 7 30 8 30 9 30 10 30 11 30 12 30 13 30 14 30 15 30
732 -0.351989 1.331150 0.577846 200 200 200 1.000000 1 31 2 31 3 31 4 31 5 31 6 31 7 31 8 31 9 31 10 31 11 31 12 31 13 31 14 31 15 31
733 -0.315799 1.302225 -0.447076 200 200 200 1.000000 1 32 2 32 3 32 4 32 5 32 6 32 7 32 8 32 9 32 10 32 11 32 12 32 13 32 14 32 15 32
734 0.719857 1.172550 -0.043308 200 200 200 1.000000 1 33 2 33 3 33 4 33 5 33 6 33 7 33 8 33 9 33 10 33 11 33 12 33 13 33 14 33 15 33
735 0.351054 1.025102 0.390926 200 200 200 1.000000 1 34 2 34 3 34 4 34 5 34 6 34 7 34 8 34 9 34 10 34 11 34 12 34 13 34 14 34 15 34
736 0.046004 1.360587 0.773860 200 200 200 1.000000 1 35 2 35 3 35 4 35 5 35 6 35 7 35 8 35 9 35 10 35 11 35 12 35 13 35 14 35 15 35
737 0.450558 1.051409 0.354318 200 200 200 1.000000 1 36 2 36 3 36 4 36 5 36 6 36 7 36 8 36 9 36 10 36 11 36 12 36 13 36 14 36 15 36
738 -0.061417 1.352562 0.307992 200 200 200 1.000000 1 37 2 37 3 37 4 37 5 37 6 37 7 37 8 37 9 37 10 37 11 37 12 37 13 37 14 37 15 37
739 0.354947 1.075203 0.475511 200 200 200 1.000000 1 38 2 38 3 38 4 38 5 38 6 38 7 38 8 38 9 38 10 38 11 38 12 38 13 38 14 38 15 38
740 -0.308942 1.087080 -0.274085 200 200 200 1.000000 1 39 2 39 3 39 4 39 5 39 6 39 7 39 8 39 9 39 10 39 11 39 12 39 13 39 14 39 15 39
741 0.006797 1.142110 -0.204567 200 200 200 1.000000 1 40 2 40 3 40 4 40 5 40 6 40 7 40 8 40 9 40 10 40 11 40 12 40 13 40 14 40 15 40
742 -0.446950 0.994927 0.253885 200 200 200 1.000000 1 41 2 41 3 41 4 41 5 41 6 41 7 41 8 41 9 41 10 41 11 41 12 41 13 41 14 41 15 41
743 -0.671802 1.297745 0.394258 200 200 200 1.000000 1 42 2 42 3 42 4 42 5 42 6 42 7 42 8 42 9 42 10 42 11 42 12 42 13 42 14 42 15 42
744 -0.038043 1.200681 -0.615824 200 200 200 1.000000 1 43 2 43 3 43 4 43 5 43 6 43 7 43 8 43 9 43 10 43 11 43 12 43 13 43 14 43 15 43
745 -0.040833 0.939233 0.350346 200 200 200 1.000000 1 44 2 44 3 44 4 44 5 44 6 44 7 44 8 44 9 44 10 44 11 44 12 44 13 44 14 44 15 44
746 -0.008854 1.370087 0.857615 200 200 200 1.000000 1 45 2 45 3 45 4 45 5 45 6 45 7 45 8 45 9 45 10 45 11 45 12 45 13 45 14 45 15 45
747 -0.109800 1.041887 0.401795 200 200 200 1.000000 1 46 2 46 3 46 4 46 5 46 6 46 7 46 8 46 9 46 10 46 11 46 12 46 13 46 14 46 15 46
748 -0.645563 1.160229 0.317119 200 200 200 1.000000 1 47 2 47 3 47 4 47 5 47 6 47 7 47 8 47 9 47 10 47 11 47 12 47 13 47 14 47 15 47
749 0.290400 1.403072 0.477725 200 200 200 1.000000 1 48 2 48 3 48 4 48 5 48 6 48 7 48 8 48 9 48 10 48 11 48 12 48 13 48 14 48 15 48
750 0.344400 1.250039 -0.130698 200 200 200 1.000000 1 49 2 49 3 49 4 49 5 49 6 49 7 49 8 49 9 49 10 49 11 49 12 49 13 49 14 49 15 49
751 -0.158851 0.874693 0.128934 200 200 200 1.000000 1 50 2 50 3 50 4 50 5 50 6 50 7 50 8 50 9 50 10 50 11 50 12 50 13 50 14 50 15 50
752 0.168927 1.438663 0.313371 200 200 200 1.000000 1 51 2 51 3 51 4 51 5 51 6 51 7 51 8 51 9 51 10 51 11 51 12 51 13 51 14 51 15 51
753 -0.131611 1.261450 -0.251860 200 200 200 1.000000 1 52 2 52 3 52 4 52 5 52 6 52 7 52 8 52 9 52 10 52 11 52 12 52 13 52 14 52 15 52
754 -0.129450 1.038605 -0.018039 200 200 200 1.000000 1 53 2 53 3 53 4 53 5 53 6 53 7 53 8 53 9 53 10 53 11 53 12 53 13 53 14 53 15 53
755 0.490805 0.900121 -0.002308 200 200 200 1.000000 1 54 2 54 3 54 4 54 5 54 6 54 7 54 8 54 9 54 10 54 11 54 12 54 13 54 14 54 15 54
756 0.031133 1.394294 -0.469239 200 200 200 1.000000 1 55 2 55 3 55 4 55 5 55 6 55 7 55 8 55 9 55 10 55 11 55 12 55 13 55 14 55 15 55
757 -0.359651 1.194652 0.577485 200 200 200 1.000000 1 56 2 56 3 56 4 56 5 56 6 56 7 56 8 56 9 56 10 56 11 56 12 56 13 56 14 56 15 56
758 0.561599 1.172080 0.061536 200 200 200 1.000000 1 57 2 57 3 57 4 57 5 57 6 57 7 57 8 57 9 57 10 57 11 57 12 57 13 57 14 57 15 57
759 0.218228 1.406471 0.312649 200 200 200 1.000000 1 58 2 58 3 58 4 58 5 58 6 58 7 58 8 58 9 58 10 58 11 58 12 58 13 58 14 58 15 58
760 -0.137904 1.413073 -0.774166 200 200 200 1.000000 1 59 2 59 3 59 4 59 5 59 6 59 7 59 8 59 9 59 10 59 11 59 12 59 13 59 14 59 15 59
761 -0.276585 0.915581 -0.093483 200 200 200 1.000000 1 60 2 60 3 60 4 60 5 60 6 60 7 60 8 60 9 60 10 60 11 60 12 60 13 60 14 60 15 60
762 -0.151403 1.066285 -0.611354 200 200 200 1.000000 1 61 2 61 3 61 4 61 5 61 6 61 7 61 8 61 9 61 10 61 11 61 12 61 13 61 14 61 15 61
763 0.241745 0.981542 -0.066557 200 200 200 1.000000 1 62 2 62 3 62 4 62 5 62 6 62 7 62 8 62 9 62 10 62 11 62 12 62 13 62 14 62 15 62
764 -0.238402 1.299332 0.338137 200 200 200 1.000000 1 63 2 63 3 63 4 63 5 63 6 63 7 63 8 63 9 63 10 63 11 63 12 63 13 63 14 63 15 63
765 -0.235674 0.835270 -0.128797 200 200 200 1.000000 1 64 2 64 3 64 4 64 5 64 6 64 7 64 8 64 9 64 10 64 11 64 12 64 13 64 14 64 15 64
766 0.781482 1.210209 -0.108002 200 200 200 1.000000 1 65 2 65 3 65 4 65 5 65 6 65 7 65 8 65 9 65 10 65 11 65 12 65 13 65 14 65 15 65
767 0.292258 1.358066 -0.279288 200 200 200 1.000000 1 66 2 66 3 66 4 66 5 66 6 66 7 66 8 66 9 66 10 66 11 66 12 66 13 66 14 66 15 66
768 -0.615583 1.389211 0.383348 200 200 200 1.000000 1 67 2 67 3 67 4 67 5 67 6 67 7 67 8 67 9 67 10 67 11 67 12 67 13 67 14 67 15 67
769 0.117061 1.049897 -0.102475 200 200 200 1.000000 1 68 2 68 3 68 4 68 5 68 6 68 7 68 8 68 9 68 10 68 11 68 12 68 13 68 14 68 15 68
770 0.091999 1.348043 0.413128 200 200 200 1.000000 1 69 2 69 3 69 4 69 5 69 6 69 7 69 8 69 9 69 10 69 11 69 12 69 13 69 14 69 15 69
771 -0.547182 0.863135 0.225582 200 200 200 1.000000 1 70 2 70 3 70 4 70 5 70 6 70 7 70 8 70 9 70 10 70 11 70 12 70 13 70 14 70 15 70
772 -0.336414 1.392966 0.045442 200 200 200 1.000000 1 71 2 71 3 71 4 71 5 71 6 71 7 71 8 71 9 71 10 71 11 71 12 71 13 71 14 71 15 71
773 0.101039 0.861227 0.411066 200 200 200 1.000000 1 72 2 72 3 72 4 72 5 72 6 72 7 72 8 72 9 72 10 72 11 72 12 72 13 72 14 72 15 72
774 0.150245 1.098223 -0.231744 200 200 200 1.000000 1 73 2 73 3 73 4 73 5 73 6 73 7 73 8 73 9 73 10 73 11 73 12 73 13 73 14 73 15 73
775 -0.066909 1.338154 0.319577 200 200 200 1.000000 1 74 2 74 3 74 4 74 5 74 6 74 7 74 8 74 9 74 10 74 11 74 12 74 13 74 14 74 15 74
776 0.109970 0.923293 -0.214243 200 200 200 1.000000 1 75 2 75 3 75 4 75 5 75 6 75 7 75 8 75 9 75 10 75 11 75 12 75 13 75 14 75 15 75
777 -0.628372 0.945681 0.235236 200 200 200 1.000000 1 76 2 76 3 76 4 76 5 76 6 76 7 76 8 76 9 76 10 76 11 76 12 76 13 76 14 76 15 76
778 -0.502686 1.303960 0.070110 200 200 200 1.000000 1 77 2 77 3 77 4 77 5 77 6 77 7 77 8 77 9 77 10 77 11 77 12 77 13 77 14 77 15 77
779 -0.242985 1.282377 0.340468 200 200 200 1.000000 1 78 2 78 3 78 4 78 5 78 6 78 7 78 8 78 9 78 10 78 11 78 12 78 13 78 14 78 15 78
780 -0.485659 1.239329 0.174086 200 200 200 1.000000 1 79 2 79 3 79 4 79 5 79 6 79 7 79 8 79 9 79 10 79 11 79 12 79 13 79 14 79 15 79
781 -0.787412 1.271035 0.246376 200 200 200 1.000000 1 80 2 80 3 80 4 80 5 80 6 80 7 80 8 80 9 80 10 80 11 80 12 80 13 80 14 80 15 80
782 0.139875 1.137512 0.615934 200 200 200 1.000000 1 81 2 81 3 81 4 81 5 81 6 81 7 81 8 81 9 81 10 81 11 81 12 81 13 81 14 81 15 81
783 0.423864 0.958102 0.281223 200 200 200 1.000000 1 82 2 82 3 82 4 82 5 82 6 82 7 82 8 82 9 82 10 82 11 82 12 82 13 82 14 82 15 82
784 0.138345 1.013396 0.424486 200 200 200 1.000000 1 83 2 83 3 83 4 83 5 83 6 83 7 83 8 83 9 83 10 83 11 83 12 83 13 83 14 83 15 83
785 0.233774 0.906671 0.310316 200 200 200 1.000000 1 84 2 84 3 84 4 84 5 84 6 84 7 84 8 84 9 84 10 84 11 84 12 84 13 84 14 84 15 84
786 -0.407113 1.435894 0.053396 200 200 200 1.000000 1 85 2 85 3 85 4 85 5 85 6 85 7 85 8 85 9 85 10 85 11 85 12 85 13 85 14 85 15 85
787 0.714075 1.210908 0.010505 200 200 200 1.000000 1 86 2 86 3 86 4 86 5 86 6 86 7 86 8 86 9 86 10 86 11 86 12 86 13 86 14 86 15 86
788 -0.037036 1.117952 -0.464294 200 200 200 1.000000 1 87 2 87 3 87 4 87 5 87 6 87 7 87 8 87 9 87 10 87 11 87 12 87 13 87 14 87 15 87
789 0.421479 1.099490 0.364370 200 200 200 1.000000 1 88 2 88 3 88 4 88 5 88 6 88 7 88 8 88 9 88 10 88 11 88 12 88 13 88 14 88 15 88
790 0.472825 1.414631 0.708375 200 200 200 1.000000 1 89 2 89 3 89 4 89 5 89 6 89 7 89 8 89 9 89 10 89 11 89 12 89 13 89 14 89 15 89
791 -0.032529 0.875028 0.469822 200 200 200 1.000000 1 90 2 90 3 90 4 90 5 90 6 90 7 90 8 90 9 90 10 90 11 90 12 90 13 90 14 90 15 90
792 0.787055 1.217720 -0.054561 200 200 200 1.000000 1 91 2 91 3 91 4 91 5 91 6 91 7 91 8 91 9 91 10 91 11 91 12 91 13 91 14 91 15 91
793 -0.208347 1.116266 0.553706 200 200 200 1.000000 1 92 2 92 3 92 4 92 5 92 6 92 7 92 8 92 9 92 10 92 11 92 12 92 13 92 14 92 15 92
794 -0.382907 1.221100 0.138801 200 200 200 1.000000 1 93 2 93 3 93 4 93 5 93 6 93 7 93 8 93 9 93 10 93 11 93 12 93 13 93 14 93 15 93
795 -0.132140 0.802332 0.169702 200 200 200 1.000000 1 94 2 94 3 94 4 94 5 94 6 94 7 94 8 94 9 94 10 94 11 94 12 94 13 94 14 94 15 94
796 -0.026823 1.385623 0.387799 200 200 200 1.000000 1 95 2 95 3 95 4 95 5 95 6 95 7 95 8 95 9 95 10 95 11 95 12 95 13 95 14 95 15 95
797 -0.785510 1.443155 0.179632 200 200 200 1.000000 1 96 2 96 3 96 4 96 5 96 6 96 7 96 8 96 9 96 10 96 11 96 12 96 13 96 14 96 15 96
798 0.306721 1.207454 -0.115883 200 200 200 1.000000 1 97 2 97 3 97 4 97 5 97 6 97 7 97 8 97 9 97 10 97 11 97 12 97 13 97 14 97 15 97
799 0.256119 1.229120 0.837797 200 200 200 1.000000 1 98 2 98 3 98 4 98 5 98 6 98 7 98 8 98 9 98 10 98 11 98 12 98 13 98 14 98 15 98
800 -0.270195 1.471877 -0.299220 200 200 200 1.000000 1 99 2 99 3 99 4 99 5 99 6 99 7 99 8 99 9 99 10 99 11 99 12 99 13 99 14 99 15 99
801 0.053496 1.246104 0.708843 200 200 200 1.000000 1 0 2 0 3 0 4 0 5 0 6 0 7 0 8 0 9 0 10 0 11 0 12 0 13 0 14 0 15 0
802 0.098977 0.865300 0.593435 200 200 200 1.000000 1 1 2 1 3 1 4 1 5 1 6 1 7 1 8 1 9 1 10 1 11 1 12 1 13 1 14 1 15 1
803 0.715953 1.209245 -0.034351 200 200 200 1.000000 1 2 2 2 3 2 4 2 5 2 6 2 7 2 8 2 9 2 10 2 11 2 12 2 13 2 14 2 15 2
804 0.266957 1.175199 0.713525 200 200 200 1.000000 1 3 2 3 3 3 4 3 5 3 6 3 7 3 8 3 9 3 10 3 11 3 12 3 13 3 14 3 15 3
805 0.211191 1.114806 -0.201248 200 200 200 1.000000 1 4 2 4 3 4 4 4 5 4 6 4 7 4 8 4 9 4 10 4 11 4 12 4 13 4 14 4 15 4
806 0.559064 1.290358 0.388206 200 200 200 1.000000 1 5 2 5 3 5 4 5 5 5 6 5 7 5 8 5 9 5 10 5 11 5 12 5 13 5 14 5 15 5
807 -0.019340 1.396995 0.824058 200 200 200 1.000000 1 6 2 6 3 6 4 6 5 6 6 6 7 6 8 6 9 6 10 6 11 6 12 6 13 6 14 6 15 6
808 -0.053035 1.504504 -0.710560 200 200 200 1.000000 1 7 2 7 3 7 4 7 5 7 6 7 7 7 8 7 9 7 10 7 11 7 12 7 13 7 14 7 15 7
809 -0.174989 1.096064 0.304808 200 200 200 1.000000 1 8 2 8 3 8 4 8 5 8 6 8 7 8 8 8 9 8 10 8 11 8 12 8 13 8 14 8 15 8
810 0.332962 0.888774 -0.095805 200 200 200 1.000000 1 9 2 9 3 9 4 9 5 9 6 9 7 9 8 9 9 9 10 9 11 9 12 9 13 9 14 9 15 9
811 -0.583908 1.469826 0.319165 200 200 200 1.000000 1 10 2 10 3 10 4 10 5 10 6 10 7 10 8 10 9 10 10 10 11 10 12 10 13 10 14 10 15 10
812 0.430506 1.406064 -0.202937 200 200 200 1.000000 1 11 2 11 3 11 4 11 5 11 6 11 7 11 8 11 9 11 10 11 11 11 12 11 13 11 14 11 15 11
813 -0.110524 0.852118 0.507247 200 200 200 1.000000 1 12 2 12 3 12 4 12 5 12 6 12 7 12 8 12 9 12 10 12 11 12 12 12 13 12 14 12 15 12
814 -0.399845 1.461253 -0.171507 200 200 200 1.000000 1 13 2 13 3 13 4 13 5 13 6 13 7 13 8 13 9 13 10 13 11 13 12 13 13 13 14 13 15 13
815 0.283220 1.424944 -0.164082 200 200 200 1.000000 1 14 2 14 3 14 4 14 5 14 6 14 7 14 8 14 9 14 10 14 11 14 12 14 13 14 14 14 15 14
816 0.540012 1.178697 -0.166345 200 200 200 1.000000 1 15 2 15 3 15 4 15 5 15 6 15 7 15 8 15 9 15 10 15 11 15 12 15 13 15 14 15 15 15
817 0.268721 1.241439 -0.326945 200 200 200 1.000000 1 16 2 16 3 16 4 16 5 16 6 16 7 16 8 16 9 16 10 16 11 16 12 16 13 16 14 16 15 16
818 -0.254702 1.118884 -0.494388 200 200 200 1.000000 1 17 2 17 3 17 4 17 5 17 6 17 7 17 8 17 9 17 10 17 11 17 12 17 13 17 14 17 15 17
819 -0.168767 0.872746 -0.433529 200 200 200 1.000000 1 18 2 18 3 18 4 18 5 18 6 18 7 18 8 18 9 18 10 18 11 18 12 18 13 18 14 18 15 18
820 -0.293251 1.018445 0.256857 200 200 200 1.000000 1 19 2 19 3 19 4 19 5 19 6 19 7 19 8 19 9 19 10 19 11 19 12 19 13 19 14 19 15 19
821 0.327665 1.316747 0.661213 200 200 200 1.000000 1 20 2 20 3 20 4 20 5 20 6 20 7 20 8 20 9 20 10 20 11 20 12 20 13 20 14 20 15 20
822 -0.275061 0.799280 0.083196 200 200 200 1.000000 1 21 2 21 3 21 4 21 5 21 6 21 7 21 8 21 9 21 10 21 11 21 12 21 13 21 14 21 15 21
823 0.047556 1.017171 0.257961 200 200 200 1.000000 1 22 2 22 3 22 4 22 5 22 6 22 7 22 8 22 9 22 10 22 11 22 12 22 13 22 14 22 15 22
824 -0.314221 1.080665 0.013622 200 200 200 1.000000 1 23 2 23 3 23 4 23 5 23 6 23 7 23 8 23 9 23 10 23 11 23 12 23 13 23 14 23 15 23
825 -0.147630 1.184631 -0.070618 200 200 200 1.000000 1 24 2 24 3 24 4 24 5 24 6 24 7 24 8 24 9 24 10 24 11 24 12 24 13 24 14 24 15 24
826 0.155124 1.389324 0.790116 200 200 200 1.000000 1 25 2 25 3 25 4 25 5 25 6 25 7 25 8 25 9 25 10 25 11 25 12 25 13 25 14 25 15 25
827 0.308604 1.042384 0.039343 200 200 200 1.000000 1 26 2 26 3 26 4 26 5 26 6 26 7 26 8 26 9 26 10 26 11 26 12 26 13 26 14 26 15 26
828 -0.542590 1.035448 0.138719 200 200 200 1.000000 1 27 2 27 3 27 4 27 5 27 6 27 7 27 8 27 9 27 10 27 11 27 12 27 13 27 14 27 15 27
829 -0.214431 1.300934 0.255452 200 200 200 1.000000 1 28 2 28 3 28 4 28 5 28 6 28 7 28 8 28 9 28 10 28 11 28 12 28 13 28 14 28 15 28
830 -0.439340 1.134832 -0.205449 200 200 200 1.000000 1 29 2 29 3 29 4 29 5 29 6 29 7 29 8 29 9 29 10 29 11 29 12 29 13 29 14 29 15 29
831 0.138794 0.972942 -0.176778 200 200 200 1.000000 1 30 2 30 3 30 4 30 5 30 6 30 7 30 8 30 9 30 10 30 11 30 12 30 13 30 14 30 15 30
832 0.297565 1.122963 -0.043130 200 200 200 1.000000 1 31 2 31 3 31 4 31 5 31 6 31 7 31 8 31 9 31 10 31 11 31 12 31 13 31 14 31 15 31
833 -0.216772 0.918014 -0.228835 200 200 200 1.000000 1 32 2 32 3 32 4 32 5 32 6 32 7 32 8 32 9 32 10 32 11 32 12 32 13 32 14 32 15 32
834 -0.336373 0.909055 0.228758 200 200 200 1.000000 1 33 2 33 3 33 4 33 5 33 6 33 7 33 8 33 9 33 10 33 11 33 12 33 13 33 14 33 15 33
835 -0.069180 1.153781 -0.023966 200 200 200 1.000000 1 34 2 34 3 34 4 34 5 34 6 34 7 34 8 34 9 34 10 34 11 34 12 34 13 34 14 34 15 34
836 0.140051 1.043878 0.706880 200 200 200 1.000000 1 35 2 35 3 35 4 35 5 35 6 35 7 35 8 35 9 35 10 35 11 35 12 35 13 35 14 35 15 35
837 0.500535 1.396985 0.639228 200 200 200 1.000000 1 36 2 36 3 36 4 36 5 36 6 36 7 36 8 36 9 36 10 36 11 36 12 36 13 36 14 36 15 36
838 -0.452092 1.064389 -0.105645 200 200 200 1.000000 1 37 2 37 3 37 4 37 5 37 6 37 7 37 8 37 9 37 10 37 11 37 12 37 13 37 14 37 15 37
839 -0.037235 1.156042 0.724557 200 200 200 1.000000 1 38 2 38 3 38 4 38 5 38 6 38 7 38 8 38 9 38 10 38 11 38 12 38 13 38 14 38 15 38
840 -0.286389 1.228167 0.240585 200 200 200 1.000000 1 39 2 39 3 39 4 39 5 39 6 39 7 39 8 39 9 39 10 39 11 39 12 39 13 39 14 39 15 39
841 0.127235 0.833316 -0.296065 200 200 200 1.000000 1 40 2 40 3 40 4 40 5 40 6 40 7 40 8 40 9 40 10 40 11 40 12 40 13 40 14 40 15 40
842 0.581544 1.283696 -0.212667 200 200 200 1.000000 1 41 2 41 3 41 4 41 5 41 6 41 7 41 8 41 9 41 10 41 11 41 12 41 13 41 14 41 15 41
843 0.250642 0.898102 0.392236 200 200 200 1.000000 1 42 2 42 3 42 4 42 5 42 6 42 7 42 8 42 9 42 10 42 11 42 12 42 13 42 14 42 15 42
844 0.192009 1.400334 1.031995 200 200 200 1.000000 1 43 2 43 3 43 4 43 5 43 6 43 7 43 8 43 9 43 10 43 11 43 12 43 13 43 14 43 15 43
845 -0.099070 0.880800 0.347474 200 200 200 1.000000 1 44 2 44 3 44 4 44 5 44 6 44 7 44 8 44 9 44 10 44 11 44 12 44 13 44 14 44 15 44
846 -0.194619 1.086221 0.094539 200 200 200 1.000000 1 45 2 45 3 45 4 45 5 45 6 45 7 45 8 45 9 45 10 45 11 45 12 45 13 45 14 45 15 45
847 0.416696 0.871352 -0.124880 200 200 200 1.000000 1 46 2 46 3 46 4 46 5 46 6 46 7 46 8 46 9 46 10 46 11 46 12 46 13 46 14 46 15 46
848 -0.605073 1.475353 0.358568 200 200 200 1.000000 1 47 2 47 3 47 4 47 5 47 6 47 7 47 8 47 9 47 10 47 11 47 12 47 13 47 14 47 15 47
849 0.226794 1.164250 -0.129023 200 200 200 1.000000 1 48 2 48 3 48 4 48 5 48 6 48 7 48 8 48 9 48 10 48 11 48 12 48 13 48 14 48 15 48
850 -0.403137 1.190817 0.395330 200 200 200 1.000000 1 49 2 49 3 49 4 49 5 49 6 49 7 49 8 49 9 49 10 49 11 49 12 49 13 49 14 49 15 49
851 0.332807 0.864597 -0.206835 200 200 200 1.000000 1 50 2 50 3 50 4 50 5 50 6 50 7 50 8 50 9 50 10 50 11 50 12 50 13 50 14 50 15 50
852 -0.373995 1.325427 0.042869 200 200 200 1.000000 1 51 2 51 3 51 4 51 5 51 6 51 7 51 8 51 9 51 10 51 11 51 12 51 13 51 14 51 15 51
853 -0.103603 0.972233 -0.306479 200 200 200 1.000000 1 52 2 52 3 52 4 52 5 52 6 52 7 52 8 52 9 52 10 52 11 52 12 52 13 52 14 52 15 52
854 0.379486 1.386805 0.617544 200 200 200 1.000000 1 53 2 53 3 53 4 53 5 53 6 53 7 53 8 53 9 53 10 53 11 53 12 53 13 53 14 53 15 53
855 -0.250014 0.963571 -0.234716 200 200 200 1.000000 1 54 2 54 3 54 4 54 5 54 6 54 7 54 8 54 9 54 10 54 11 54 12 54 13 54 14 54 15 54
856 -0.151515 0.912875 0.312691 200 200 200 1.000000 1 55 2 55 3 55 4 55 5 55 6 55 7 55 8 55 9 55 10 55 11 55 12 55 13 55 14 55 15 55
857 -0.352247 0.814451 0.180822 200 200 200 1.000000 1 56 2 56 3 56 4 56 5 56 6 56 7 56 8 56 9 56 10 56 11 56 12 56 13 56 14 56 15 56
858 -0.168575 1.178992 -0.613488 200 200 200 1.000000 1 57 2 57 3 57 4 57 5 57 6 57 7 57 8 57 9 57 10 57 11 57 12 57 13 57 14 57 15 57
859 -0.194440 1.245348 -0.630182 200 200 200 1.000000 1 58 2 58 3 58 4 58 5 58 6 58 7 58 8 58 9 58 10 58 11 58 12 58 13 58 14 58 15 58
860 -0.052606 0.875043 -0.360813 200 200 200 1.000000 1 59 2 59 3 59 4 59 5 59 6 59 7 59 8 59 9 59 10 59 11 59 12 59 13 59 14 59 15 59
861 0.505014 1.329881 0.225010 200 200 200 1.000000 1 60 2 60 3 60 4 60 5 60 6 60 7 60 8 60 9 60 10 60 11 60 12 60 13 60 14 60 15 60
862 -0.016936 1.145366 -0.337507 200 200 200 1.000000 1 61 2 61 3 61 4 61 5 61 6 61 7 61 8 61 9 61 10 61 11 61 12 61 13 61 14 61 15 61
863 0.168141 1.111588 0.792159 200 200 200 1.000000 1 62 2 62 3 62 4 62 5 62 6 62 7 62 8 62 9 62 10 62 11 62 12 62 13 62 14 62 15 62
864 -0.023528 1.090514 0.284256 200 200 200 1.000000 1 63 2 63 3 63 4 63 5 63 6 63 7 63 8 63 9 63 10 63 11 63 12 63 13 63 14 63 15 63
865 -0.166860 1.067844 0.211266 200 200 200 1.000000 1 64 2 64 3 64 4 64 5 64 6 64 7 64 8 64 9 64 10 64 11 64 12 64 13 64 14 64 15 64
866 0.167952 1.194688 0.004403 200 200 200 1.000000 1 65 2 65 3 65 4 65 5 65 6 65 7 65 8 65 9 65 10 65 11 65 12 65 13 65 14 65 15 65
867 -0.058366 0.897458 0.184939 200 200 200 1.000000 1 66 2 66 3 66 4 66 5 66 6 66 7 66 8 66 9 66 10 66 11 66 12 66 13 66 14 66 15 66
868 0.024400 0.894967 0.471438 200 200 200 1.000000 1 67 2 67 3 67 4 67 5 67 6 67 7 67 8 67 9 67 10 67 11 67 12 67 13 67 14 67 15 67
869 -0.182710 1.420061 -0.175025 200 200 200 1.000000 1 68 2 68 3 68 4 68 5 68 6 68 7 68 8 68 9 68 10 68 11 68 12 68 13 68 14 68 15 68
870 0.069333 1.495423 -0.393296 200 200 200 1.000000 1 69 2 69 3 69 4 69 5 69 6 69 7 69 8 69 9 69 10 69 11 69 12 69 13 69 14 69 15 69
871 0.283194 1.033870 0.409753 200 200 200 1.000000 1 70 2 70 3 70 4 70 5 70 6 70 7 70 8 70 9 70 10 70 11 70 12 70 13 70 14 70 15 70
872 0.173226 0.946517 0.617111 200 200 200 1.000000 1 71 2 71 3 71 4 71 5 71 6 71 7 71 8 71 9 71 10 71 11 71 12 71 13 71 14 71 15 71
873 0.206138 1.204144 0.676068 200 200 200 1.000000 1 72 2 72 3 72 4 72 5 72 6 72 7 72 8 72 9 72 10 72 11 72 12 72 13 72 14 72 15 72
874 -0.228347 1.068972 0.271568 200 200 200 1.000000 1 73 2 73 3 73 4 73 5 73 6 73 7 73 8 73 9 73 10 73 11 73 12 73 13 73 14 73 15 73
875 0.103595 0.796184 0.321638 200 200 200 1.000000 1 74 2 74 3 74 4 74 5 74 6 74 7 74 8 74 9 74 10 74 11 74 12 74 13 74 14 74 15 74
876 0.052472 0.915739 -0.053196 200 200 200 1.000000 1 75 2 75 3 75 4 75 5 75 6 75 7 75 8 75 9 75 10 75 11 75 12 75 13 75 14 75 15 75
877 0.068667 1.305900 -0.015581 200 200 200 1.000000 1 76 2 76 3 76 4 76 5 76 6 76 7 76 8 76 9 76 10 76 11 76 12 76 13 76 14 76 15 76
878 -0.178368 1.288088 -0.315677 200 200 200 1.000000 1 77 2 77 3 77 4 77 5 77 6 77 7 77 8 77 9 77 10 77 11 77 12 77 13 77 14 77 15 77
879 0.001485 0.806749 0.195220 200 200 200 1.000000 1 78 2 78 3 78 4 78 5 78 6 78 7 78 8 78 9 78 10 78 11 78 12 78 13 78 14 78 15 78
880 -0.083596 0.984004 -0.351044 200 200 200 1.000000 1 79 2 79 3 79 4 79 5 79 6 79 7 79 8 79 9 79 10 79 11 79 12 79 13 79 14 79 15 79
881 -0.290611 0.947973 0.221574 200 200 200 1.000000 1 80 2 80 3 80 4 80 5 80 6 80 7 80 8 80 9 80 10 80 11 80 12 80 13 80 14 80 15 80
882 0.357283 1.246314 0.371116 200 200 200 1.000000 1 81 2 81 3 81 4 81 5 81 6 81 7 81 8 81 9 81 10 81 11 81 12 81 13 81 14 81 15 81
883 -0.067094 0.836331 -0.274077 200 200 200 1.000000 1 82 2 82 3 82 4 82 5 82 6 82 7 82 8 82 9 82 10 82 11 82 12 82 13 82 14 82 15 82
884 -0.465939 0.868197 0.095441 200 200 200 1.000000 1 83 2 83 3 83 4 83 5 83 6 83 7 83 8 83 9 83 10 83 11 83 12 83 13 83 14 83 15 83
885 -0.780323 1.346839 0.227155 200 200 200 1.000000 1 84 2 84 3 84 4 84 5 84 6 84 7 84 8 84 9 84 10 84 11 84 12 84 13 84 14 84 15 84
886 0.535107 0.928103 -0.007926 200 200 200 1.000000 1 85 2 85 3 85 4 85 5 85 6 85 7 85 8 85 9 85 10 85 11 85 12 85 13 85 14 85 15 85
887 -0.099949 1.240893 0.262871 200 200 200 1.000000 1 86 2 86 3 86 4 86 5 86 6 86 7 86 8 86 9 86 10 86 11 86 12 86 13 86 14 86 15 86
888 0.023039 0.978626 -0.124853 200 200 200 1.000000 1 87 2 87 3 87 4 87 5 87 6 87 7 87 8 87 9 87 10 87 11 87 12 87 13 87 14 87 15 87
889 0.002738 0.830781 0.556303 200 200 200 1.000000 1 88 2 88 3 88 4 88 5 88 6 88 7 88 8 88 9 88 10 88 11 88 12 88 13 88 14 88 15 88
890 0.373721 0.965930 0.093816 200 200 200 1.000000 1 89 2 89 3 89 4 89 5 89 6 89 7 89 8 89 9 89 10 89 11 89 12 89 13 89 14 89 15 89
891 -0.314374 1.295920 0.178785 200 200 200 1.000000 1 90 2 90 3 90 4 90 5 90 6 90 7 90 8 90 9 90 10 90 11 90 12 90 13 90 14 90 15 90
892 -0.110225 1.345744 0.770480 200 200 200 1.000000 1 91 2 91 3 91 4 91 5 91 6 91 7 91 8 91 9 91 10 91 11 91 12 91 13 91 14 91 15 91
893 0.396780 1.371758 0.177920 200 200 200 1.000000 1 92 2 92 3 92 4 92 5 92 6 92 7 92 8 92 9 92 10 92 11 92 12 92 13 92 14 92 15 92
894 -0.011825 1.051060 0.403917 200 200 200 1.000000 1 93 2 93 3 93 4 93 5 93 6 93 7 93 8 93 9 93 10 93 11 93 12 93 13 93 14 93 15 93
895 -0.448756 1.273021 -0.025483 200 200 200 1.000000 1 94 2 94 3 94 4 94 5 94 6 94 7 94 8 94 9 94 10 94 11 94 12 94 13 94 14 94 15 94
896 0.082772 0.902133 0.593161 200 200 200 1.000000 1 95 2 95 3 95 4 95 5 95 6 95 7 95 8 95 9 95 10 95 11 95 12 95 13 95 14 95 15 95
897 -0.159684 0.978880 0.392512 200 200 200 1.000000 1 96 2 96 3 96 4 96 5 96 6 96 7 96 8 96 9 96 10 96 11 96 12 96 13 96 14 96 15 96
898 -0.417353 1.418109 0.178683 200 200 200 1.000000 1 97 2 97 3 97 4 97 5 97 6 97 7 97 8 97 9 97 10 97 11 97 12 97 13 97 14 97 15 97
899 -0.231112 0.788730 0.304913 200 200 200 1.000000 1 98 2 98 3 98 4 98 5 98 6 98 7 98 8 98 9 98 10 98 11 98 12 98 13 98 14 98 15 98
900 -0.141928 0.895375 -0.447663 200 200 200 1.000000 1 99 2 99 3 99 4 99 5 99 6 99 7 99 8 99 9 99 10 99 11 99 12 99 13 99 14 99 15 99
901 -0.549133 0.928089 0.270271 200 200 200 1.000000 1 0 2 0 3 0 4 0 5 0 6 0 7 0 8 0 9 0 10 0 11 0 12 0 13 0 14 0 15 0
902 0.175319 0.806792 0.189300 200 200 200 1.000000 1 1 2 1 3 1 4 1 5 1 6 1 7 1 8 1 9 1 10 1 11 1 12 1 13 1 14 1 15 1
903 -0.578866 0.921410 0.109801 200 200 200 1.000000 1 2 2 2 3 2 4 2 5 2 6 2 7 2 8 2 9 2 10 2 11 2 12 2 13 2 14 2 15 2
904 -0.210853 1.194461 0.229184 200 200 200 1.000000 1 3 2 3 3 3 4 3 5 3 6 3 7 3 8 3 9 3 10 3 11 3 12 3 13 3 14 3 15 3
905 0.274138 1.119953 -0.296368 200 200 200 1.000000 1 4 2 4 3 4 4 4 5 4 6 4 7 4 8 4 9 4 10 4 11 4 12 4 13 4 14 4 15 4
906 -0.794652 1.416546 0.165070 200 200 200 1.000000 1 5 2 5 3 5 4 5 5 5 6 5 7 5 8 5 9 5 10 5 11 5 12 5 13 5 14 5 15 5
907 0.892274 1.382056 -0.082133 200 200 200 1.000000 1 6 2 6 3 6 4 6 5 6 6 6 7 6 8 6 9 6 10 6 11 6 12 6 13 6 14 6 15 6
908 -0.405072 1.028890 0.178581 200 200 200 1.000000 1 7 2 7 3 7 4 7 5 7 6 7 7 7 8 7 9 7 10 7 11 7 12 7 13 7 14 7 15 7
909 -0.032548 1.001335 -0.230143 200 200 200 1.000000 1 8 2 8 3 8 4 8 5 8 6 8 7 8 8 8 9 8 10 8 11 8 12 8 13 8 14 8 15 8
910 -0.148408 1.074344 -0.076120 200 200 200 1.000000 1 9 2 9 3 9 4 9 5 9 6 9 7 9 8 9 9 9 10 9 11 9 12 9 13 9 14 9 15 9
911 -0.021191 1.251949 -0.478110 200 200 200 1.000000 1 10 2 10 3 10 4 10 5 10 6 10 7 10 8 10 9 10 10 10 11 10 12 10 13 10 14 10 15 10
912 -0.384408 1.008014 -0.238431 200 200 200 1.000000 1 11 2 11 3 11 4 11 5 11 6 11 7 11 8 11 9 11 10 11 11 11 12 11 13 11 14 11 15 11
913 0.261388 1.224791 0.209276 200 200 200 1.000000 1 12 2 12 3 12 4 12 5 12 6 12 7 12 8 12 9 12 10 12 11 12 12 12 13 12 14 12 15 12
914 0.246119 1.042735 0.632160 200 200 200 1.000000 1 13 2 13 3 13 4 13 5 13 6 13 7 13 8 13 9 13 10 13 11 13 12 13 13 13 14 13 15 13
915 -0.489756 1.171757 0.241994 200 200 200 1.000000 1 14 2 14 3 14 4 14 5 14 6 14 7 14 8 14 9 14 10 14 11 14 12 14 13 14 14 14 15 14
916 0.401382 1.123589 -0.206142 200 200 200 1.000000 1 15 2 15 3 15 4 15 5 15 6 15 7 15 8 15 9 15 10 15 11 15 12 15 13 15 14 15 15 15
917 0.110232 0.982865 0.351215 200 200 200 1.000000 1 16 2 16 3 16 4 16 5 16 6 16 7 16 8 16 9 16 10 16 11 16 12 16 13 16 14 16 15 16
918 0.326505 1.427831 0.541277 200 200 200 1.000000 1 17 2 17 3 17 4 17 5 17 6 17 7 17 8 17 9 17 10 17 11 17 12 17 13 17 14 17 15 17
919 0.101678 1.356528 -0.247665 200 200 200 1.000000 1 18 2 18 3 18 4 18 5 18 6 18 7 18 8 18 9 18 10 18 11 18 12 18 13 18 14 18 15 18
920 -0.227226 0.893750 0.091660 200 200 200 1.000000 1 19 2 19 3 19 4 19 5 19 6 19 7 19 8 19 9 19 10 19 11 19 12 19 13 19 14 19 15 19
921 0.139252 1.453430 -0.562147 200 200 200 1.000000 1 20 2 20 3 20 4 20 5 20 6 20 7 20 8 20 9 20 10 20 11 20 12 20 13 20 14 20 15 20
922 0.351221 1.145187 -0.011574 200 200 200 1.000000 1 21 2 21 3 21 4 21 5 21 6 21 7 21 8 21 9 21 10 21 11 21 12 21 13 21 14 21 15 21
923 0.454792 1.412776 0.233785 200 200 200 1.000000 1 22 2 22 3 22 4 22 5 22 6 22 7 22 8 22 9 22 10 22 11 22 12 22 13 22 14 22 15 22
924 -0.082120 1.405687 -0.567795 200 200 200 1.000000 1 23 2 23 3 23 4 23 5 23 6 23 7 23 8 23 9 23 10 23 11 23 12 23 13 23 14 23 15 23
925 -0.387505 1.069671 0.418273 200 200 200 1.000000 1 24 2 24 3 24 4 24 5 24 6 24 7 24 8 24 9 24 10 24 11 24 12 24 13 24 14 24 15 24
926 0.167616 0.788049 0.403819 200 200 200 1.000000 1 25 2 25 3 25 4 25 5 25 6 25 7 25 8 25 9 25 10 25 11 25 12 25 13 25 14 25 15 25
927 0.235652 0.971069 0.266097 200 200 200 1.000000 1 26 2 26 3 26 4 26 5 26 6 26 7 26 8 26 9 26 10 26 11 26 12 26 13 26 14 26 15 26
928 0.305107 1.133008 0.666396 200 200 200 1.000000 1 27 2 27 3 27 4 27 5 27 6 27 7 27 8 27 9 27 10 27 11 27 12 27 13 27 14 27 15 27
929 0.430179 1.246160 0.009208 200 200 200 1.000000 1 28 2 28 3 28 4 28 5 28 6 28 7 28 8 28 9 28 10 28 11 28 12 28 13 28 14 28 15 28
930 0.135375 1.007540 -0.328453 200 200 200 1.000000 1 29 2 29 3 29 4 29 5 29 6 29 7 29 8 29 9 29 10 29 11 29 12 29 13 29 14 29 15 29
931 0.031131 0.887588 0.167669 200 200 200 1.000000 1 30 2 30 3 30 4 30 5 30 6 30 7 30 8 30 9 30 10 30 11 30 12 30 13 30 14 30 15 30
932 0.068420 1.358165 0.406044 200 200 200 1.000000 1 31 2 31 3 31 4 31 5 31 6 31 7 31 8 31 9 31 10 31 11 31 12 31 13 31 14 31 15 31
933 -0.153642 1.552834 -0.805513 200 200 200 1.000000 1 32 2 32 3 32 4 32 5 32 6 32 7 32 8 32 9 32 10 32 11 32 12 32 13 32 14 32 15 32
934 0.008641 1.158710 0.168375 200 200 200 1.000000 1 33 2 33 3 33 4 33 5 33 6 33 7 33 8 33 9 33 10 33 11 33 12 33 13 33 14 33 15 33
935 0.156236 0.909306 0.180769 200 200 200 1.000000 1 34 2 34 3 34 4 34 5 34 6 34 7 34 8 34 9 34 10 34 11 34 12 34 13 34 14 34 15 34
936 -0.356522 0.992019 0.017686 200 200 200 1.000000 1 35 2 35 3 35 4 35 5 35 6 35 7 35 8 35 9 35 10 35 11 35 12 35 13 35 14 35 15 35
937 0.372375 0.822146 -0.095098 200 200 200 1.000000 1 36 2 36 3 36 4 36 5 36 6 36 7 36 8 36 9 36 10 36 11 36 12 36 13 36 14 36 15 36
938 0.155222 1.437392 0.088601 200 200 200 1.000000 1 37 2 37 3 37 4 37 5 37 6 37 7 37 8 37 9 37 10 37 11 37 12 37 13 37 14 37 15 37
939 0.460713 0.878349 0.087681 200 200 200 1.000000 1 38 2 38 3 38 4 38 5 38 6 38 7 38 8 38 9 38 10 38 11 38 12 38 13 38 14 38 15 38
940 -0.258501 1.245652 -0.523658 200 200 200 1.000000 1 39 2 39 3 39 4 39 5 39 6 39 7 39 8 39 9 39 10 39 11 39 12 39 13 39 14 39 15 39
941 -0.280632 0.988740 0.078509 200 200 200 1.000000 1 40 2 40 3 40 4 40 5 40 6 40 7 40 8 40 9 40 10 40 11 40 12 40 13 40 14 40 15 40
942 0.058494 1.174951 0.219068 200 200 200 1.000000 1 41 2 41 3 41 4 41 5 41 6 41 7 41 8 41 9 41 10 41 11 41 12 41 13 41 14 41 15 41
943 0.023242 1.289964 -0.412100 200 200 200 1.000000 1 42 2 42 3 42 4 42 5 42 6 42 7 42 8 42 9 42 10 42 11 42 12 42 13 42 14 42 15 42
944 0.146003 1.353451 0.420513 200 200 200 1.000000 1 43 2 43 3 43 4 43 5 43 6 43 7 43 8 43 9 43 10 43 11 43 12 43 13 43 14 43 15 43
945 0.356200 0.949316 -0.030136 200 200 200 1.000000 1 44 2 44 3 44 4 44 5 44 6 44 7 44 8 44 9 44 10 44 11 44 12 44 13 44 14 44 15 44
946 -0.076042 0.840468 -0.412489 200 200 200 1.000000 1 45 2 45 3 45 4 45 5 45 6 45 7 45 8 45 9 45 10 45 11 45 12 45 13 45 14 45 15 45
947 0.070380 0.899720 -0.019509 200 200 200 1.000000 1 46 2 46 3 46 4 46 5 46 6 46 7 46 8 46 9 46 10 46 11 46 12 46 13 46 14 46 15 46
948 0.198382 1.447027 -0.176770 200 200 200 1.000000 1 47 2 47 3 47 4 47 5 47 6 47 7 47 8 47 9 47 10 47 11 47 12 47 13 47 14 47 15 47
949 0.079050 1.441987 -0.356308 200 200 200 1.000000 1 48 2 48 3 48 4 48 5 48 6 48 7 48 8 48 9 48 10 48 11 48 12 48 13 48 14 48 15 48
950 0.671117 1.219765 0.023790 200 200 200 1.000000 1 49 2 49 3 49 4 49 5 49 6 49 7 49 8 49 9 49 10 49 11 49 12 49 13 49 14 49 15 49
951 0.265980 1.193043 0.413921 200 200 200 1.000000 1 50 2 50 3 50 4 50 5 50 6 50 7 50 8 50 9 50 10 50 11 50 12 50 13 50 14 50 15 50
952 -0.098972 1.216827 0.704184 200 200 200 1.000000 1 51 2 51 3 51 4 51 5 51 6 51 7 51 8 51 9 51 10 51 11 51 12 51 13 51 14 51 15 51
953 0.116854 0.906685 0.251129 200 200 200 1.000000 1 52 2 52 3 52 4 52 5 52 6 52 7 52 8 52 9 52 10 52 11 52 12 52 13 52 14 52 15 52
954 0.089646 1.453886 -0.132985 200 200 200 1.000000 1 53 2 53 3 53 4 53 5 53 6 53 7 53 8 53 9 53 10 53 11 53 12 53 13 53 14 53 15 53
955 0.356890 1.068316 0.375525 200 200 200 1.000000 1 54 2 54 3 54 4 54 5 54 6 54 7 54 8 54 9 54 10 54 11 54 12 54 13 54 14 54 15 54
956 0.318991 1.073431 -0.031136 200 200 200 1.000000 1 55 2 55 3 55 4 55 5 55 6 55 7 55 8 55 9 55 10 55 11 55 12 55 13 55 14 55 15 55
957 0.133250 1.139055 0.369536 200 200 200 1.000000 1 56 2 56 3 56 4 56 5 56 6 56 7 56 8 56 9 56 10 56 11 56 12 56 13 56 14 56 15 56
958 0.313881 0.825471 0.130771 200 200 200 1.000000 1 57 2 57 3 57 4 57 5 57 6 57 7 57 8 57 9 57 10 57 11 57 12 57 13 57 14 57 15 57
959 -0.329937 0.904379 0.196137 200 200 200 1.000000 1 58 2 58 3 58 4 58 5 58 6 58 7 58 8 58 9 58 10 58 11 58 12 58 13 58 14 58 15 58
960 0.517798 1.317164 0.041405 200 200 200 1.000000 1 59 2 59 3 59 4 59 5 59 6 59 7 59 8 59 9 59 10 59 11 59 12 59 13 59 14 59 15 59
961 -0.198226 0.868540 -0.111098 200 200 200 1.000000 1 60 2 60 3 60 4 60 5 60 6 60 7 60 8 60 9 60 10 60 11 60 12 60 13 60 14 60 15 60
962 -0.355191 1.204018 0.290725 200 200 200 1.000000 1 61 2 61 3 61 4 61 5 61 6 61 7 61 8 61 9 61 10 61 11 61 12 61 13 61 14 61 15 61
963 -0.243968 0.962958 0.154551 200 200 200 1.000000 1 62 2 62 3 62 4 62 5 62 6 62 7 62 8 62 9 62 10 62 11 62 12 62 13 62 14 62 15 62
964 0.575735 1.065517 0.134034 200 200 200 1.000000 1 63 2 63 3 63 4 63 5 63 6 63 7 63 8 63 9 63 10 63 11 63 12 63 13 63 14 63 15 63
965 0.290490 0.983927 0.282193 200 200 200 1.000000 1 64 2 64 3 64 4 64 5 64 6 64 7 64 8 64 9 64 10 64 11 64 12 64 13 64 14 64 15 64
966 0.015346 1.019159 0.441223 200 200 200 1.000000 1 65 2 65 3 65 4 65 5 65 6 65 7 65 8 65 9 65 10 65 11 65 12 65 13 65 14 65 15 65
967 0.579298 1.325668 -0.253297 200 200 200 1.000000 1 66 2 66 3 66 4 66 5 66 6 66 7 66 8 66 9 66 10 66 11 66 12 66 13 66 14 66 15 66
968 0.170330 1.016169 -0.073192 200 200 200 1.000000 1 67 2 67 3 67 4 67 5 67 6 67 7 67 8 67 9 67 10 67 11 67 12 67 13 67 14 67 15 67
969 0.746249 1.205670 -0.079747 200 200 200 1.000000 1 68 2 68 3 68 4 68 5 68 6 68 7 68 8 68 9 68 10 68 11 68 12 68 13 68 14 68 15 68
970 -0.048437 1.125185 0.150589 200 200 200 1.000000 1 69 2 69 3 69 4 69 5 69 6 69 7 69 8 69 9 69 10 69 11 69 12 69 13 69 14 69 15 69
971 -0.143960 1.265225 0.037930 200 200 200 1.000000 1 70 2 70 3 70 4 70 5 70 6 70 7 70 8 70 9 70 10 70 11 70 12 70 13 70 14 70 15 70
972 -0.097125 1.507424 -0.643276 200 200 200 1.000000 1 71 2 71 3 71 4 71 5 71 6 71 7 71 8 71 9 71 10 71 11 71 12 71 13 71 14 71 15 71
973 0.333316 1.296173 0.273012 200 200 200 1.000000 1 72 2 72 3 72 4 72 5 72 6 72 7 72 8 72 9 72 10 72 11 72 12 72 13 72 14 72 15 72
974 0.294106 0.951138 0.025987 200 200 200 1.000000 1 73 2 73 3 73 4 73 5 73 6 73 7 73 8 73 9 73 10 73 11 73 12 73 13 73 14 73 15 73
975 -0.190438 0.810764 0.179754 200 200 200 1.000000 1 74 2 74 3 74 4 74 5 74 6 74 7 74 8 74 9 74 10 74 11 74 12 74 13 74 14 74 15 74
976 -0.420557 0.996390 -0.136474 200 200 200 1.000000 1 75 2 75 3 75 4 75 5 75 6 75 7 75 8 75 9 75 10 75 11 75 12 75 13 75 14 75 15 75
977 0.097385 1.168265 0.696857 200 200 200 1.000000 1 76 2 76 3 76 4 76 5 76 6 76 7 76 8 76 9 76 10 76 11 76 12 76 13 76 14 76 15 76
978 -0.476457 0.834860 0.046278 200 200 200 1.000000 1 77 2 77 3 77 4 77 5 77 6 77 7 77 8 77 9 77 10 77 11 77 12 77 13 77 14 77 15 77
979 -0.114853 1.099421 0.690865 200 200 200 1.000000 1 78 2 78 3 78 4 78 5 78 6 78 7 78 8 78 9 78 10 78 11 78 12 78 13 78 14 78 15 78
980 0.175993 1.156677 0.870001 200 200 200 1.000000 1 79 2 79 3 79 4 79 5 79 6 79 7 79 8 79 9 79 10 79 11 79 12 79 13 79 14 79 15 79
981 0.213977 1.064342 -0.371726 200 200 200 1.000000 1 80 2 80 3 80 4 80 5 80 6 80 7 80 8 80 9 80 10 80 11 80 12 80 13 80 14 80 15 80
982 -0.485587 1.328818 0.195609 200 200 200 1.000000 1 81 2 81 3 81 4 81 5 81 6 81 7 81 8 81 9 81 10 81 11 81 12 81 13 81 14 81 15 81
983 0.228032 0.873897 0.042099 200 200 200 1.000000 1 82 2 82 3 82 4 82 5 82 6 82 7 82 8 82 9 82 10 82 11 82 12 82 13 82 14 82 15 82
984 0.384066 0.857348 -0.032597 200 200 200 1.000000 1 83 2 83 3 83 4 83 5 83 6 83 7 83 8 83 9 83 10 83 11 83 12 83 13 83 14 83 15 83
985 0.087100 1.307828 0.074151 200 200 200 1.000000 1 84 2 84 3 84 4 84 5 84 6 84 7 84 8 84 9 84 10 84 11 84 12 84 13 84 14 84 15 84
986 0.233588 1.097540 0.707965 200 200 200 1.000000 1 85 2 85 3 85 4 85 5 85 6 85 7 85 8 85 9 85 10 85 11 85 12 85 13 85 14 85 15 85
987 -0.323652 1.319581 -0.461489 200 200 200 1.000000 1 86 2 86 3 86 4 86 5 86 6 86 7 86 8 86 9 86 10 86 11 86 12 86 13 86 14 86 15 86
988 0.064592 1.108016 -0.008241 200 200 200 1.000000 1 87 2 87 3 87 4 87 5 87 6 87 7 87 8 87 9 87 10 87 11 87 12 87 13 87 14 87 15 87
989 0.300530 0.975247 -0.001353 200 200 200 1.000000 1 88 2 88 3 88 4 88 5 88 6 88 7 88 8 88 9 88 10 88 11 88 12 88 13 88 14 88 15 88
990 0.619393 1.372609 0.061104 200 200 200 1.000000 1 89 2 89 3 89 4 89 5 89 6 89 7 89 8 89 9 89 10 89 11 89 12 89 13 89 14 89 15 89
991 -0.014984 1.413469 -0.676995 200 200 200 1.000000 1 90 2 90 3 90 4 90 5 90 6 90 7 90 8 90 9 90 10 90 11 90 12 90 13 90 14 90 15 90
992 0.375386 1.273154 0.224865 200 200 200 1.000000 1 91 2 91 3 91 4 91 5 91 6 91 7 91 8 91 9 91 10 91 11 91 12 91 13 91 14 91 15 91
993 -0.041381 0.975971 0.232791 200 200 200 1.000000 1 92 2 92 3 92 4 92 5 92 6 92 7 92 8 92 9 92 10 92 11 92 12 92 13 92 14 92 15 92
994 -0.007519 1.226055 -0.129167 200 200 200 1.000000 1 93 2 93 3 93 4 93 5 93 6 93 7 93 8 93 9 93 10 93 11 93 12 93 13 93 14 93 15 93
995 -0.572287 1.037186 0.248104 200 200 200 1.000000 1 94 2 94 3 94 4 94 5 94 6 94 7 94 8 94 9 94 10 94 11 94 12 94 13 94 14 94 15 94
996 0.451563 0.870377 -0.052666 200 200 200 1.000000 1 95 2 95 3 95 4 95 5 95 6 95 7 95 8 95 9 95 10 95 11 95 12 95 13 95 14 95 15 95
997 -0.713151 1.423969 0.298350 200 200 200 1.000000 1 96 2 96 3 96 4 96 5 96 6 96 7 96 8 96 9 96 10 96 11 96 12 96 13 96 14 96 15 96
998 -0.226829 0.890598 0.102987 200 200 200 1.000000 1 97 2 97 3 97 4 97 5 97 6 97 7 97 8 97 9 97 10 97 11 97 12 97 13 97 14 97 15 97
999 -0.006950 1.502203 -0.445754 200 200 200 1.000000 1 98 2 98 3 98 4 98 5 98 6 98 7 98 8 98 9 98 10 98 11 98 12 98 13 98 14 98 15 98
1000 0.405612 1.099299 0.215345 200 200 200 1.000000 1 99 2 99 3 99 4 99 5 99 6 99 7 99 8 99 9 99 10 99 11 99 12 99 13 99 14 99 15 99
1001 0.081073 0.914477 0.238440 200 200 200 1.000000 1 0 2 0 3 0 4 0 5 0 6 0 7 0 8 0 9 0 10 0 11 0 12 0 13 0 14 0 15 0
1002 0.276734 1.160123 0.302913 200 200 200 1.000000 1 1 2 1 3 1 4 1 5 1 6 1 7 1 8 1 9 1 10 1 11 1 12 1 13 1 14 1 15 1
1003 -0.023836 1.452368 -0.505392 200 200 200 1.000000 1 2 2 2 3 2 4 2 5 2 6 2 7 2 8 2 9 2 10 2 11 2 12 2 13 2 14 2 15 2
1004 0.023524 1.289367 0.361598 200 200 200 1.000000 1 3 2 3 3 3 4 3 5 3 6 3 7 3 8 3 9 3 10 3 11 3 12 3 13 3 14 3 15 3
1005 0.356224 1.388222 -0.268486 200 200 200 1.000000 1 4 2 4 3 4 4 4 5 4 6 4 7 4 8 4 9 4 10 4 11 4 12 4 13 4 14 4 15 4
1006 0.070230 1.208638 0.755478 200 200 200 1.000000 1 5 2 5 3 5 4 5 5 5 6 5 7 5 8 5 9 5 10 5 11 5 12 5 13 5 14 5 15 5
1007 0.631132 1.282202 0.079806 200 200 200 1.000000 1 6 2 6 3 6 4 6 5 6 6 6 7 6 8 6 9 6 10 6 11 6 12 6 13 6 14 6 15 6
1008 -0.307855 1.447988 -0.671299 200 200 200 1.000000 1 7 2 7 3 7 4 7 5 7 6 7 7 7 8 7 9 7 10 7 11 7 12 7 13 7 14 7 15 7
1009 -0.026077 0.946058 0.423597 200 200 200 1.000000 1 8 2 8 3 8 4 8 5 8 6 8 7 8 8 8 9 8 10 8 11 8 12 8 13 8 14 8 15 8
1010 -0.473156 1.155090 -0.126375 200 200 200 1.000000 1 9 2 9 3 9 4 9 5 9 6 9 7 9 8 9 9 9 10 9 11 9 12 9 13 9 14 9 15 9
1011 -0.134345 0.930554 0.363240 200 200 200 1.000000 1 10 2 10 3 10 4 10 5 10 6 10 7 10 8 10 9 10 10 10 11 10 12 10 13 10 14 10 15 10
1012 -0.098520 1.519115 -0.319392 200 200 200 1.000000 1 11 2 11 3 11 4 11 5 11 6 11 7 11 8 11 9 11 10 11 11 11 12 11 13 11 14 11 15 11
1013 -0.208934 1.471381 -0.088235 200 200 200 1.000000 1 12 2 12 3 12 4 12 5 12 6 12 7 12 8 12 9 12 10 12 11 12 12 12 13 12 14 12 15 12
1014 -0.041329 0.837168 -0.098556 200 200 200 1.000000 1 13 2 13 3 13 4 13 5 13 6 13 7 13 8 13 9 13 10 13 11 13 12 13 13 13 14 13 15 13
1015 -0.081582 1.259710 0.509428 200 200 200 1.000000 1 14 2 14 3 14 4 14 5 14 6 14 7 14 8 14 9 14 10 14 11 14 12 14 13 14 14 14 15 14
1016 -0.428398 1.427476 0.326190 200 200 200 1.000000 1 15 2 15 3 15 4 15 5 15 6 15 7 15 8 15 9 15 10 15 11 15 12 15 13 15 14 15 15 15
1017 -0.049762 0.888873 0.540871 200 200 200 1.000000 1 16 2 16 3 16 4 16 5 16 6 16 7 16 8 16 9 16 10 16 11 16 12 16 13 16 14 16 15 16
1018 -0.211751 1.185661 0.204942 200 200 200 1.000000 1 17 2 17 3 17 4 17 5 17 6 17 7 17 8 17 9 17 10 17 11 17 12 17 13 17 14 17 15 17
1019 -0.475395 1.467204 -0.302572 200 200 200 1.000000 1 18 2 18 3 18 4 18 5 18 6 18 7 18 8 18 9 18 10 18 11 18 12 18 13 18 14 18 15 18
1020 0.356429 0.830418 -0.059378 200 200 200 1.000000 1 19 2 19 3 19 4 19 5 19 6 19 7 19 8 19 9 19 10 19 11 19 12 19 13 19 14 19 15 19
1021 -0.114892 1.309088 -0.234394 200 200 200 1.000000 1 20 2 20 3 20 4 20 5 20 6 20 7 20 8 20 9 20 10 20 11 20 12 20 13 20 14 20 15 20
1022 -0.092289 1.004070 0.092290 200 200 200 1.000000 1 21 2 21 3 21 4 21 5 21 6 21 7 21 8 21 9 21 10 21 11 21 12 21 13 21 14 21 15 21
1023 0.581509 1.473023 -0.296711 200 200 200 1.000000 1 22 2 22 3 22 4 22 5 22 6 22 7 22 8 22 9 22 10 22 11 22 12 22 13 22 14 22 15 22
1024 -0.031904 1.505770 -0.296630 200 200 200 1.000000 1 23 2 23 3 23 4 23 5 23 6 23 7 23 8 23 9 23 10 23 11 23 12 23 13 23 14 23 15 23
1025 -0.202479 1.521975 -0.769233 200 200 200 1.000000 1 24 2 24 3 24 4 24 5 24 6 24 7 24 8 24 9 24 10 24 11 24 12 24 13 24 14 24 15 24
1026 -0.102855 1.136521 -0.019839 200 200 200 1.000000 1 25 2 25 3 25 4 25 5 25 6 25 7 25 8 25 9 25 10 25 11 25 12 25 13 25 14 25 15 25
1027 0.339868 1.353574 0.724912 200 200 200 1.000000 1 26 2 26 3 26 4 26 5 26 6 26 7 26 8 26 9 26 10 26 11 26 12 26 13 26 14 26 15 26
1028 -0.172412 1.340883 0.730473 200 200 200 1.000000 1 27 2 27 3 27 4 27 5 27 6 27 7 27 8 27 9 27 10 27 11 27 12 27 13 27 14 27 15 27
1029 0.273024 1.027882 -0.023042 200 200 200 1.000000 1 28 2 28 3 28 4 28 5 28 6 28 7 28 8 28 9 28 10 28 11 28 12 28 13 28 14 28 15 28
1030 -0.130665 1.336721 0.638524 200 200 200 1.000000 1 29 2 29 3 29 4 29 5 29 6 29 7 29 8 29 9 29 10 29 11 29 12 29 13 29 14 29 15 29
1031 -0.297211 0.823522 0.062714 200 200 200 1.000000 1 30 2 30 3 30 4 30 5 30 6 30 7 30 8 30 9 30 10 30 11 30 12 30 13 30 14 30 15 30
1032 -0.061996 1.220504 0.002979 200 200 200 1.000000 1 31 2 31 3 31 4 31 5 31 6 31 7 31 8 31 9 31 10 31 11 31 12 31 13 31 14 31 15 31
1033 0.236095 0.952541 0.149815 200 200 200 1.000000 1 32 2 32 3 32 4 32 5 32 6 32 7 32 8 32 9 32 10 32 11 32 12 32 13 32 14 32 15 32
1034 -0.247662 0.901646 -0.200140 200 200 200 1.000000 1 33 2 33 3 33 4 33 5 33 6 33 7 33 8 33 9 33 10 33 11 33 12 33 13 33 14 33 15 33
1035 -0.314066 0.841471 0.198919 200 200 200 1.000000 1 34 2 34 3 34 4 34 5 34 6 34 7 34 8 34 9 34 10 34 11 34 12 34 13 34 14 34 15 34
1036 -0.325879 1.285838 0.068732 200 200 200 1.000000 1 35 2 35 3 35 4 35 5 35 6 35 7 35 8 35 9 35 10 35 11 35 12 35 13 35 14 35 15 35
1037 0.006840 1.045453 -0.063391 200 200 200 1.000000 1 36 2 36 3 36 4 36 5 36 6 36 7 36 8 36 9 36 10 36 11 36 12 36 13 36 14 36 15 36
1038 0.860923 1.316657 -0.077450 200 200 200 1.000000 1 37 2 37 3 37 4 37 5 37 6 37 7 37 8 37 9 37 10 37 11 37 12 37 13 37 14 37 15 37
1039 -0.202516 0.870060 -0.296879 200 200 200 1.000000 1 38 2 38 3 38 4 38 5 38 6 38 7 38 8 38 9 38 10 38 11 38 12 38 13 38 14 38 15 38
1040 0.250358 1.043903 -0.275413 200 200 200 1.000000 1 39 2 39 3 39 4 39 5 39 6 39 7 39 8 39 9 39 10 39 11 39 12 39 13 39 14 39 15 39
1041 -0.149266 1.208733 -0.376111 200 200 200 1.000000 1 40 2 40 3 40 4 40 5 40 6 40 7 40 8 40 9 40 10 40 11 40 12 40 13 40 14 40 15 40
1042 0.602298 1.331940 0.341195 200 200 200 1.000000 1 41 2 41 3 41 4 41 5 41 6 41 7 41 8 41 9 41 10 41 11 41 12 41 13 41 14 41 15 41
1043 -0.503346 1.016665 0.125067 200 200 200 1.000000 1 42 2 42 3 42 4 42 5 42 6 42 7 42 8 42 9 42 10 42 11 42 12 42 13 42 14 42 15 42
1044 0.011908 1.252331 -0.145987 200 200 200 1.000000 1 43 2 43 3 43 4 43 5 43 6 43 7 43 8 43 9 43 10 43 11 43 12 43 13 43 14 43 15 43
1045 0.378829 1.413613 0.141242 200 200 200 1.000000 1 44 2 44 3 44 4 44 5 44 6 44 7 44 8 44 9 44 10 44 11 44 12 44 13 44 14 44 15 44
1046 0.279957 1.225458 0.121761 200 200 200 1.000000 1 45 2 45 3 45 4 45 5 45 6 45 7 45 8 45 9 45 10 45 11 45 12 45 13 45 14 45 15 45
1047 -0.067824 0.962816 0.039069 200 200 200 1.000000 1 46 2 46 3 46 4 46 5 46 6 46 7 46 8 46 9 46 10 46 11 46 12 46 13 46 14 46 15 46
1048 -0.092564 0.821333 -0.027179 200 200 200 1.000000 1 47 2 47 3 47 4 47 5 47 6 47 7 47 8 47 9 47 10 47 11 47 12 47 13 47 14 47 15 47
1049 -0.247858 1.396539 0.221259 200 200 200 1.000000 1 48 2 48 3 48 4 48 5 48 6 48 7 48 8 48 9 48 10 48 11 48 12 48 13 48 14 48 15 48
1050 -0.152723 0.821347 -0.057042 200 200 200 1.000000 1 49 2 49 3 49 4 49 5 49 6 49 7 49 8 49 9 49 10 49 11 49 12 49 13 49 14 49 15 49
1051 -0.581437 1.398640 0.236511 200 200 200 1.000000 1 50 2 50 3 50 4 50 5 50 6 50 7 50 8 50 9 50 10 50 11 50 12 50 13 50 14 50 15 50
1052 0.177348 1.190006 -0.223315 200 200 200 1.000000 1 51 2 51 3 51 4 51 5 51 6 51 7 51 8 51 9 51 10 51 11 51 12 51 13 51 14 51 15 51
1053 -0.531983 1.438499 0.308329 200 200 200 1.000000 1 52 2 52 3 52 4 52 5 52 6 52 7 52 8 52 9 52 10 52 11 52 12 52 13 52 14 52 15 52
1054 -0.548972 1.332039 0.416211 200 200 200 1.000000 1 53 2 53 3 53 4 53 5 53 6 53 7 53 8 53 9 53 10 53 11 53 12 53 13 53 14 53 15 53
1055 0.145319 1.479105 0.317967 200 200 200 1.000000 1 54 2 54 3 54 4 54 5 54 6 54 7 54 8 54 9 54 10 54 11 54 12 54 13 54 14 54 15 54
1056 0.501180 1.033248 0.204048 200 200 200 1.000000 1 55 2 55 3 55 4 55 5 55 6 55 7 55 8 55 9 55 10 55 11 55 12 55 13 55 14 55 15 55
1057 0.071096 1.322652 0.243571 200 200 200 1.000000 1 56 2 56 3 56 4 56 5 56 6 56 7 56 8 56 9 56 10 56 11 56 12 56 13 56 14 56 15 56
1058 -0.515194 1.081782 0.034190 200 200 200 1.000000 1 57 2 57 3 57 4 57 5 57 6 57 7 57 8 57 9 57 10 57 11 57 12 57 13 57 14 57 15 57
1059 -0.368861 1.156256 -0.232592 200 200 200 1.000000 1 58 2 58 3 58 4 58 5 58 6 58 7 58 8 58 9 58 10 58 11 58 12 58 13 58 14 58 15 58
1060 0.366676 1.201655 0.553383 200 200 200 1.000000 1 59 2 59 3 59 4 59 5 59 6 59 7 59 8 59 9 59 10 59 11 59 12 59 13 59 14 59 15 59
1061 0.091705 1.457100 -0.562333 200 200 200 1.000000 1 60 2 60 3 60 4 60 5 60 6 60 7 60 8 60 9 60 10 60 11 60 12 60 13 60 14 60 15 60
1062 -0.168073 1.548196 -0.745914 200 200 200 1.000000 1 61 2 61 3 61 4 61 5 61 6 61 7 61 8 61 9 61 10 61 11 61 12 61 13 61 14 61 15 61
1063 0.112967 1.329015 0.167961 200 200 200 1.000000 1 62 2 62 3 62 4 62 5 62 6 62 7 62 8 62 9 62 10 62 11 62 12 62 13 62 14 62 15 62
1064 0.011262 1.072368 0.311317 200 200 200 1.000000 1 63 2 63 3 63 4 63 5 63 6 63 7 63 8 63 9 63 10 63 11 63 12 63 13 63 14 63 15 63
1065 0.277572 1.101537 -0.048410 200 200 200 1.000000 1 64 2 64 3 64 4 64 5 64 6 64 7 64 8 64 9 64 10 64 11 64 12 64 13 64 14 64 15 64
1066 -0.588342 1.287173 0.441968 200 200 200 1.000000 1 65 2 65 3 65 4 65 5 65 6 65 7 65 8 65 9 65 10 65 11 65 12 65 13 65 14 65 15 65
1067 -0.406980 0.981808 -0.162184 200 200 200 1.000000 1 66 2 66 3 66 4 66 5 66 6 66 7 66 8 66 9 66 10 66 11 66 12 66 13 66 14 66 15 66
